ply
format ascii 1.0
element vertex 1277
property float x
property float y
property float z
property uchar red
property uchar green
property uchar blue
end_header
-2.59775 1.41128 -0.0259836 205 255 41
-1.98567 -0.255781 -2.52098 255 26 0
-1.78004 2.27207 -0.197992 102 255 144
-2.00817 3.56358 -0.399959 255 140 0
-2.21367 -0.604023 0.160497 195 255 50
-2.24496 1.30016 -0.428187 255 52 0
-1.98432 0.38714 -0.111303 236 3 0
-1.76247 -0.975908 0.131943 255 107 0
-2.14849 -0.969318 0.291364 208 255 37
-2.53667 1.28363 0.36979 192 255 54
-2.33573 0.360764 0.354082 63 255 183
-1.81156 0.953928 -0.0861503 255 59 0
-2.33561 0.906353 0.215147 215 255 31
-1.9471 2.73295 -0.0651243 157 255 89
-1.94227 2.71842 -0.0642279 0 24 255
-2.32742 0.885296 0.21214 205 255 41
-2.21478 3.21138 0.653916 0 128 255
-2.21155 3.22083 0.665559 0 132 255
-1.57421 -1.10047 0.171281 255 226 0
-2.10742 -1.09534 0.080318 208 255 37
-1.8775 -0.566285 0.0351662 255 126 0
-1.70786 -0.244304 0.503297 95 255 150
-1.58072 -0.917799 0.321388 41 255 205
-2.37198 -0.263813 -0.0364216 170 255 76
-2.15592 1.41607 0.9299 0 36 255
-2.13282 -0.562975 -0.0900499 124 255 121
-2.19871 -1.26468 0.0596434 255 77 0
-2.14013 -0.959214 0.309942 141 255 105
-2.16435 1.36806 0.900641 0 64 255
-1.69076 -0.243983 0.0268788 215 255 31
-1.79785 -0.388876 -2.29866 228 255 18
-1.95887 -0.264543 -2.30432 183 255 63
-1.69044 -0.222842 -0.0304458 255 192 0
-2.21989 2.77689 -0.420269 255 40 0
-2.58347 2.97284 1.05158 255 126 0
-2.5704 2.96545 1.05479 255 63 0
-2.05854 -0.45188 -1.32525 208 255 37
-1.79203 0.967371 -0.05396 255 40 0
-2.15319 -0.935228 0.320112 128 255 118
-2.34381 0.915996 0.234958 186 255 60
-1.57282 -1.09789 0.211972 255 189 0
-1.83187 -0.980397 0.130758 255 226 0
-2.38432 -0.330579 0.748634 99 255 147
-2.09933 -0.365737 -1.13213 173 255 73
-1.63247 1.11562 0.171206 183 255 63
-1.91262 -0.568849 -2.58573 255 229 0
-1.93419 -0.631712 0.486682 0 92 255
-2.54893 3.78057 -0.49119 255 48 0
-1.48263 -1.21583 0.296738 255 170 0
-2.14373 -0.947341 0.294831 150 255 95
-1.83 0.643631 -0.0732526 255 103 0
-2.19125 -0.593618 0.134037 218 255 28
-1.92853 0.402965 -0.127612 200 0 0
-1.62709 1.04431 0.321395 192 255 54
-2.01955 3.55307 -0.384519 255 140 0
-1.92444 -1.56634 0.190802 255 29 0
-1.92536 -0.652125 0.437738 0 144 255
-2.35843 -0.440422 1.8646 137 255 108
-1.73553 0.173586 -0.194318 255 133 0
-2.14764 0.573417 -0.0678298 255 59 0
-1.65903 0.271181 -0.16012 228 255 18
-2.19184 1.34478 0.89911 0 100 255
-2.31692 0.555848 0.370053 131 255 115
-2.38395 -0.30935 0.749296 147 255 99
-1.65483 1.2576 0.26926 170 255 76
-2.30888 0.156364 0.64073 0 224 250
-2.34978 0.405254 0.349897 108 255 137
-2.3316 0.469866 0.492325 0 204 255
-2.00504 2.76877 0.94961 255 55 0
-1.70646 -0.283661 0.402561 255 137 0
-1.57861 -0.917615 0.320812 37 255 208
-1.81049 2.13696 -0.305719 255 129 0
-1.74319 -0.91151 0.179015 255 152 0
-1.93757 0.418216 -0.146788 236 3 0
-2.49678 3.0671 -0.435823 50 255 195
-2.31417 0.347489 0.000100722 128 255 118
-1.94017 -0.605889 0.0271079 255 52 0
-1.96058 0.40275 -0.125455 200 0 0
-1.73602 0.193624 -0.196384 255 100 0
-1.83943 1.10275 -0.17977 255 144 0
-1.51515 0.379742 0.321919 247 244 0
-1.84506 1.08094 -0.181657 255 144 0
-1.71563 -1.10654 0.0863279 255 111 0
-1.98967 -0.385764 1.25333 255 115 0
-2.3397 -0.366852 -0.080746 154 255 92
-2.18069 0.688046 -0.042613 255 152 0
-1.66575 1.21167 0.332853 166 255 79
-2.12839 -0.961509 0.335667 205 255 41
-1.98168 -0.255972 -2.5319 255 26 0
-1.89209 -0.765513 0.0870359 255 118 0
-1.88619 1.72173 -0.30947 199 255 47
-1.94193 0.402714 -0.130286 200 0 0
-2.37784 -0.448264 1.85472 154 255 92
-1.876 -0.53682 0.00119378 255 192 0
-1.85466 2.59925 0.820914 121 255 125
-2.15687 -0.923384 0.305093 170 255 76
-1.63082 1.04339 0.303023 147 255 99
-1.71426 -0.304425 0.400725 255 144 0
-1.96834 -1.59616 0.179648 255 111 0
-1.97587 -1.59471 0.178709 255 115 0
-1.89496 -0.587323 0.0563633 255 155 0
-1.62721 1.09435 0.330245 179 255 66
-1.72219 0.205856 -0.18666 237 255 8
-1.71834 0.165741 -0.184599 255 55 0
-2.51017 3.07485 -0.445351 37 255 208
-2.32374 -0.266665 1.04434 89 255 157
-2.32417 -0.266625 1.04518 89 255 157
-2.35255 0.820466 0.483728 134 255 112
-2.34025 0.992813 -0.270482 202 255 44
-1.8349 -0.461976 -2.63956 212 255 34
-1.84 -0.352495 -2.08296 250 240 0
-2.21642 -0.596105 0.179969 199 255 47
-1.84 -0.352495 -2.08296 250 240 0
-1.95293 0.418047 -0.146985 182 0 0
-2.62112 1.48851 0.715536 0 176 255
-2.49658 2.40242 0.639553 231 255 15
-2.11825 -0.432317 1.2344 208 255 37
-2.50876 2.97616 -0.230663 83 255 163
-1.86824 -0.629001 0.143025 255 152 0
-2.30836 0.66945 0.379385 0 212 255
-1.99355 -0.38146 1.23237 255 203 0
-2.21284 -0.618277 0.180499 205 255 41
-2.46132 2.79715 -0.241052 255 129 0
-2.19479 0.754695 -0.0394571 255 181 0
-2.35582 -0.344469 1.00451 137 255 108
-2.13545 4.67733 -0.337619 255 189 0
-1.69151 -0.240778 0.0183879 255 166 0
-2.12218 4.70919 -0.31296 255 144 0
-1.54571 -1.13324 0.455055 0 140 255
-1.66309 3.42016 -0.173523 128 255 118
-2.00666 2.77577 0.96437 255 48 0
-2.32584 0.352671 0.520125 63 255 183
-1.83465 2.00591 0.568994 255 126 0
-2.38235 -0.298781 0.767396 150 255 95
-1.94849 2.2736 -0.406968 255 196 0
-2.18779 1.21952 -0.27878 241 7 0
-1.7001 -1.1248 0.0952058 255 59 0
-1.63266 1.07072 0.179866 183 255 63
-1.81339 -0.237445 -1.57585 183 255 63
-2.29532 0.281581 0.673848 105 255 141
-1.57236 -1.07462 0.211685 255 203 0
-1.83624 2.03032 0.568658 124 255 121
-1.49337 0.164437 0.110527 70 255 176
-2.37282 3.37879 1.20627 255 192 0
-2.37229 3.37064 1.21935 255 181 0
-2.01129 2.79566 0.962381 255 59 0
-2.32632 -0.244807 1.05908 41 255 205
-2.20013 -0.628818 0.157454 208 255 37
-2.33185 -0.431046 2.68986 47 255 199
-2.52403 3.80708 -0.485928 255 166 0
-2.30712 0.442907 0.438889 99 255 147
-1.62821 1.09224 0.165195 186 255 60
-1.84547 1.77934 -0.314005 255 77 0
-2.34656 1.0184 -0.265432 205 255 41
-2.36358 -0.375323 -0.0282251 79 255 166
-2.22246 0.760196 -0.00675251 147 255 99
-1.68786 0.937763 0.0351131 224 255 21
-2.35204 -0.355278 1.01982 215 255 31
-1.72488 0.934898 0.0308341 255 89 0
-2.31094 0.269426 0.663825 115 255 131
-2.40271 0.565899 0.0386459 245 11 0
-2.38661 -0.436025 1.04605 144 255 102
-2.34937 2.72908 1.04617 0 184 255
-2.20837 2.70203 -0.435146 204 0 0
-1.73036 1.48035 -0.0844308 99 255 147
-1.85614 -1.03435 0.106135 255 126 0
-1.83156 1.9937 0.582639 255 126 0
-1.70814 -0.24219 -0.00449237 241 252 5
-2.19106 -0.617167 0.133896 192 255 54
-2.17165 2.25553 0.187656 0 100 255
-2.35376 -0.33383 1.02073 73 255 173
-2.33649 -0.275701 1.03792 89 255 157
-1.88715 1.99332 0.542968 255 118 0
-2.48592 3.13421 -0.365282 232 0 0
-1.62831 0.39078 -0.00139738 254 237 0
-1.98356 2.63492 0.10974 255 189 0
-1.89849 2.88731 0.930173 0 84 255
-2.21622 0.737248 -0.0128324 255 181 0
-1.91353 1.67968 0.571637 224 255 21
-2.31662 0.8151 0.422765 160 255 86
-2.13233 4.57783 0.998071 255 122 0
-1.88187 2.02947 0.511667 255 107 0
-2.08371 2.65893 0.120959 255 159 0
-2.39387 0.54955 0.0409782 245 11 0
-2.12463 -0.149144 -0.563594 131 255 115
-1.87344 -1.55152 0.185453 255 52 0
-2.30841 0.269821 0.667074 115 255 131
-1.95204 3.81195 -0.10005 255 26 0
-1.50054 0.157115 0.581081 255 163 0
-1.51764 0.155835 0.0982855 70 255 176
-1.97095 0.402318 -0.132769 195 0 0
-1.74911 1.50837 -0.0609136 108 255 137
-1.64247 1.24967 0.122364 255 185 0
-2.20778 -0.584406 0.156755 186 255 60
-1.84614 1.70077 -0.296663 228 255 18
-1.8598 -0.545109 0.0704634 255 218 0
-2.35522 -0.333536 1.0627 237 255 8
-2.30065 0.369943 -0.00184304 73 255 173
-2.10767 2.67094 0.132813 255 144 0
-2.35488 -0.362851 1.82973 99 255 147
-2.34412 -0.334207 0.979589 47 255 199
-1.7627 1.52186 -0.0698323 118 255 128
-2.42896 1.16062 0.234272 118 255 128
-1.89716 -1.55104 0.192878 255 44 0
-2.42693 3.14337 -0.361631 255 89 0
-2.12651 -0.364151 -1.12088 163 255 83
-2.20858 -0.640431 0.180839 208 255 37
-1.75108 1.47275 -0.0800271 112 255 134
-1.52241 0.142687 0.569127 121 255 125
-1.99894 -0.0666308 -0.299257 255 174 0
-2.32423 -0.423656 2.65582 73 255 173
-2.47831 3.11829 -0.357205 232 0 0
-2.08537 1.06096 -0.244384 255 100 0
-1.84116 1.84876 0.224071 134 255 112
-1.93828 -0.496463 -0.162393 86 255 160
-1.62262 1.23415 0.155561 192 255 54
-1.90519 1.98533 0.528678 255 181 0
-2.25281 2.80959 -0.434113 241 7 0
-2.24493 2.79869 -0.42647 245 11 0
-2.33213 -0.2329 1.04881 44 255 202
-2.33573 -0.323333 0.989778 54 255 192
-2.35689 -0.303117 0.940566 134 255 112
-2.36222 -0.354766 1.06685 237 255 8
-2.33262 -0.33214 1.40259 163 255 83
-1.79355 -0.356162 -2.29765 255 229 0
-2.20611 1.88719 -0.427029 255 37 0
-2.44044 1.1698 0.206145 141 255 105
-1.84148 -0.388995 -0.142918 224 255 21
-1.87659 1.51818 -0.328325 255 122 0
-2.05519 1.09825 -0.254758 255 122 0
-1.85311 -1.55137 0.177508 255 48 0
-1.80633 -0.379434 -2.20072 189 255 57
-1.98423 2.66534 0.099613 255 159 0
-2.02755 1.08492 -0.226341 255 122 0
-1.93097 -0.490617 -0.142236 105 255 141
-2.33807 -0.321195 1.42326 99 255 147
-1.80117 2.4435 -0.215048 141 255 105
-1.60554 -0.116095 0.245973 70 255 176
-1.94636 -0.253147 -0.361468 255 85 0
-1.62716 0.627112 0.0364617 254 237 0
-2.23898 3.05492 -0.447009 255 44 0
-1.79676 -0.702251 0.549798 255 126 0
-1.82943 -0.386824 -2.53644 254 237 0
-1.79184 -0.683527 0.563202 255 152 0
-2.18849 -0.624896 0.116866 0 152 255
-2.00968 2.47264 -0.2897 255 174 0
-2.17597 4.56873 -0.297532 255 137 0
-2.36404 -0.231556 -0.0154485 247 244 0
-2.02081 3.70774 -0.409275 255 196 0
-1.79521 -0.702364 0.548729 255 129 0
-2.3281 2.7042 1.00502 0 196 255
-2.3337 2.75537 1.02257 0 208 255
-1.73464 -0.328399 0.407674 255 103 0
-1.63616 0.430231 0.0217821 255 229 0
-2.18389 -0.548559 0.678018 99 255 147
-2.0846 1.05504 -0.216962 255 126 0
-1.90871 -0.761263 0.621559 255 174 0
-2.32065 -0.480461 1.1846 154 255 92
-2.00912 0.451603 -0.142845 255 44 0
-2.11841 -0.321837 -1.08013 137 255 108
-2.48475 1.22364 -0.193859 204 0 0
-1.6373 1.23216 0.13845 255 196 0
-1.50963 0.203011 0.206975 218 255 28
-2.12357 -0.310535 -1.10143 137 255 108
-1.66245 1.13885 0.101622 255 203 0
-2.11225 -0.344465 -1.08323 144 255 102
-2.07241 3.34444 -0.150643 255 192 0
-1.67956 1.14819 0.0872059 255 140 0
-2.33993 -0.353609 1.40748 70 255 176
-2.50923 1.13965 -0.149772 186 0 0
-2.33601 -0.441565 2.67476 54 255 192
-2.41623 3.88037 -0.545612 255 137 0
-2.50395 3.95447 1.04064 0 176 255
-2.3328 -0.43357 2.64653 63 255 183
-2.01092 0.436067 -0.131203 255 55 0
-1.60813 0.583213 0.0580173 255 74 0
-1.64247 0.453019 0.0227629 255 196 0
-1.9065 0.131054 1.11495 54 255 192
-2.3231 -0.454744 2.63948 70 255 176
-2.30915 0.646962 0.212686 205 255 41
-2.01635 3.70195 -0.390174 255 211 0
-2.36766 3.35485 1.20495 255 192 0
-2.36796 3.36311 1.19182 255 200 0
-1.60445 0.359338 -0.0413469 255 222 0
-1.67365 1.12543 0.0868261 255 166 0
-1.92417 -0.48514 -2.02199 208 255 37
-1.6809 1.13356 0.0706092 244 248 2
-2.07045 3.36899 -0.129484 255 185 0
-2.51494 2.02269 -0.273949 255 218 0
-1.63867 0.615632 0.0296692 254 237 0
-1.80609 -0.666408 0.562646 255 177 0
-2.49593 1.22365 0.383937 218 255 28
-1.59145 -0.115295 0.221369 76 255 170
-1.82927 1.36933 0.887057 255 29 0
-2.32543 0.938633 0.169775 73 255 173
-2.12689 -0.331884 -1.09377 131 255 115
-2.3601 -0.220325 -0.0324917 247 244 0
-2.23437 0.230954 0.75148 34 255 212
-2.34042 2.73915 1.02156 0 208 255
-2.52646 2.0112 -0.256621 255 170 0
-2.33962 0.743455 0.361582 255 207 0
-2.04049 3.74147 -0.412393 247 244 0
-1.6404 1.05911 0.161115 186 255 60
-1.79907 -1.53726 0.172158 255 63 0
-1.83501 1.65164 -0.265039 255 211 0
-1.83997 1.6378 -0.270029 173 255 73
-2.22666 4.45539 -0.488711 255 226 0
-2.21406 4.45032 -0.496234 212 255 34
-2.33149 -0.277563 -0.0957836 150 255 95
-2.32759 -0.310718 1.40014 79 255 166
-1.74168 -0.347364 0.423236 255 100 0
-2.06799 1.86222 -0.464045 255 77 0
-1.96362 0.856602 -0.142165 245 11 0
-1.75728 1.30587 -0.232192 255 129 0
-1.61839 0.419792 0.0363484 231 255 15
-2.34314 2.70641 0.990683 0 188 255
-2.37203 -0.352735 1.79616 118 255 128
-2.69267 1.46347 0.0180865 255 215 0
-1.6663 1.45401 0.260075 66 255 179
-1.82284 -0.632078 0.548512 255 137 0
-2.25473 2.50238 0.990003 255 211 0
-2.24565 2.51327 0.983646 244 248 2
-1.80757 -0.663544 0.565845 255 181 0
-1.78811 1.27984 -0.192164 255 200 0
-1.73883 0.647876 -0.0114934 244 248 2
-2.384 2.0235 1.00192 0 208 255
-2.27413 4.11152 0.926736 0 36 255
-2.11548 0.352684 -0.329152 99 255 147
-1.96404 0.874096 -0.152507 255 52 0
-2.31833 2.68781 0.99397 0 192 255
-2.23016 2.2776 -0.37608 255 40 0
-1.51199 0.0847114 0.494384 255 211 0
-2.39455 -0.359288 -0.223417 208 255 37
-2.22063 -1.25507 0.0730629 213 0 0
-1.66015 1.43007 0.263768 112 255 134
-1.74335 3.14904 0.511259 0 44 255
-1.75513 3.157 0.504966 0 0 204
-1.91044 -0.22483 -0.796408 215 255 31
-1.75754 2.04415 0.679612 95 255 150
-1.76726 2.05333 0.68755 70 255 176
-1.53439 0.0618787 0.497596 250 240 0
-2.23554 -1.27221 0.0699287 255 37 0
-2.34929 -0.422437 2.64275 57 255 189
-1.91317 -0.896307 0.097086 255 111 0
-2.6134 3.47265 0.942203 18 252 228
-1.83472 -0.386879 -2.43526 255 137 0
-2.47968 2.31311 0.576026 255 218 0
-1.5534 0.10095 0.48478 150 255 95
-1.73252 1.28583 -0.0321659 105 255 141
-2.07497 1.07509 -0.271505 255 107 0
-2.46254 2.33177 0.581509 112 255 134
-2.0447 2.95041 -0.0446558 255 37 0
-2.31832 -0.288699 -0.105136 183 255 63
-1.97857 -0.537699 -0.148264 255 185 0
-1.65118 0.493972 0.0297944 255 233 0
-2.02609 3.74893 -0.356201 255 192 0
-2.06913 1.06895 -0.249275 255 89 0
-1.57946 -1.22121 0.135024 255 144 0
-1.95292 -0.508123 -0.117684 86 255 160
-1.80604 -0.537145 -2.28281 147 255 99
-2.29136 4.10699 0.927463 0 32 255
-2.19008 0.744737 -0.0535289 255 185 0
-1.97971 2.79272 0.967957 255 70 0
-2.32591 4.68664 1.30375 0 120 255
-2.48002 2.3264 0.603611 134 255 112
-2.20488 -1.25355 0.0711436 255 44 0
-2.53098 3.47127 -0.485408 255 159 0
-1.6519 0.515887 0.0410397 255 233 0
-2.37205 -0.352735 1.79618 118 255 128
-2.50151 1.02501 0.264577 128 255 118
-2.04253 2.93285 -0.0382216 255 37 0
-2.30602 -0.411104 -0.0922415 255 163 0
-2.34029 2.72041 1.01339 0 196 255
-1.8677 -0.466056 -2.5188 234 255 12
-2.27904 0.385895 0.653477 21 255 225
-2.35199 -0.265606 0.476115 255 192 0
-1.6694 1.4165 0.273988 37 255 208
-2.31798 -0.266598 -0.106025 183 255 63
-2.44962 -0.501099 2.17206 121 255 125
-2.30495 0.647488 0.181501 221 255 24
-1.99324 -1.01337 0.089341 255 103 0
-1.56825 -1.45421 0.453042 0 128 255
-1.88857 -1.01169 0.0908382 255 29 0
-1.66552 0.526539 0.0312346 255 233 0
-2.18935 3.33038 -0.482962 255 122 0
-1.55797 0.482002 0.157359 244 248 2
-1.84006 1.81765 -0.292294 255 48 0
-1.76227 -0.420553 0.0591937 255 181 0
-2.3193 -0.0158414 -0.369945 224 255 21
-2.30115 -0.473685 0.470942 192 255 54
-2.12202 -0.355434 -1.05446 255 218 0
-2.43155 2.68838 -0.0807909 205 255 41
-2.3136 0.535546 0.471891 73 255 173
-2.22502 0.526166 -0.0430474 255 181 0
-1.86499 1.63032 -0.310695 255 122 0
-2.08333 1.05486 -0.21783 255 126 0
-2.18804 3.39813 -0.480257 255 137 0
-2.56244 3.92973 0.81071 92 255 154
-1.74151 -1.41567 0.0734001 255 233 0
-1.76919 -0.243956 -0.145685 232 0 0
-2.10823 -0.355378 -1.06174 247 244 0
-2.47939 -1.22266 0.174344 255 122 0
-1.75524 -0.219108 -0.126464 222 0 0
-2.17446 3.30517 -0.450316 255 126 0
-1.55749 0.498914 0.140686 244 248 2
-2.30656 4.69811 1.29632 0 160 255
-2.08883 1.03689 -0.198859 255 144 0
-2.37076 2.97319 -0.442614 255 103 0
-2.35617 2.96834 -0.445266 213 0 0
-2.46405 2.35479 0.582418 112 255 134
-2.098 1.04469 -0.215295 255 126 0
-1.86919 -0.475626 -2.49988 170 255 76
-2.11125 0.330485 -0.333009 112 255 134
-1.83389 0.94733 -0.115709 255 148 0
-2.34341 0.00177559 0.544956 70 255 176
-2.53123 3.26978 -0.46537 200 0 0
-2.54193 3.26661 -0.47628 245 11 0
-2.35063 0.0123362 0.53092 37 255 208
-2.13308 4.94119 1.41267 0 16 255
-2.13937 4.92716 1.41535 0 0 255
-2.32262 -0.01911 0.573156 21 255 225
-2.18584 3.31803 -0.47018 255 122 0
-2.50527 2.00452 -0.255137 255 152 0
-1.80726 1.14473 -0.140915 255 222 0
-2.51123 3.45727 -0.482937 255 74 0
-2.51123 3.45727 -0.482937 255 74 0
-2.06404 1.68697 0.572806 255 152 0
-1.89313 -0.989773 0.0906723 255 140 0
-2.34956 0.0337015 0.530547 70 255 176
-2.31684 -0.236677 1.20512 54 255 192
-1.67853 0.515376 0.0145329 255 226 0
-1.96415 3.08622 0.00566284 255 66 0
-2.18216 3.33932 -0.469825 255 122 0
-2.17768 3.36015 -0.469438 255 126 0
-1.54137 0.496726 0.192425 47 255 199
-2.56746 3.24839 -0.484375 186 0 0
-2.30138 0.803316 0.383202 112 255 134
-2.1301 3.91034 1.0927 0 16 255
-2.19664 0.614175 -0.0477382 255 40 0
-2.29116 1.73915 -0.379766 255 118 0
-2.1655 3.28992 -0.437747 255 122 0
-2.42822 -0.318811 0.686791 66 255 179
-2.00857 3.09227 -0.0126082 255 40 0
-2.2581 1.84178 -0.407485 245 11 0
-2.4044 -0.351713 0.734177 115 255 131
-2.33416 -0.0300195 0.562274 47 255 199
-2.27827 0.326752 0.636851 41 255 205
-1.97044 4.90684 -0.444659 160 255 86
-1.97502 4.92018 -0.451407 118 255 128
-2.27161 -1.5354 0.414874 255 215 0
-2.2439 4.12318 0.956778 0 4 255
-1.75993 1.59358 -0.0226294 131 255 115
-1.748 1.60207 -0.0171409 134 255 112
-1.79173 1.6285 -0.222524 131 255 115
-1.75561 1.49694 -0.0767397 186 255 60
-1.87247 -0.446609 -2.52372 176 255 70
-1.77334 0.890026 0.0166671 255 77 0
-1.8626 -0.486297 -2.5145 166 255 79
-2.0028 3.11319 -0.0130639 255 37 0
-2.22733 0.748962 0.00212952 255 177 0
-1.96997 3.11824 -0.00502883 255 218 0
-2.6795 1.84284 0.752436 89 255 157
-2.36792 0.213748 0.0827341 166 255 79
-1.99457 -0.287113 -2.06226 189 255 57
-1.68622 0.432207 -0.0163247 128 255 118
-2.09704 1.04578 -0.217406 255 126 0
-2.55712 3.26516 -0.484414 250 15 0
-1.76888 2.37446 -0.145063 0 104 255
-2.54334 3.30167 -0.479771 236 3 0
-1.73656 0.822947 0.0241279 255 170 0
-2.22108 -0.8688 0.32237 200 0 0
-2.02582 -0.428839 1.23974 179 255 66
-1.70989 -0.308403 0.342594 255 81 0
-1.77153 1.9685 -0.0518122 8 240 237
-1.77235 1.98215 -0.044189 12 244 234
-2.41787 -0.29777 0.714861 160 255 86
-2.511 2.33771 0.619157 173 255 73
-2.27057 4.14999 0.949817 0 8 255
-2.34318 0.0444713 0.545708 124 255 121
-2.33763 0.65212 0.385081 141 255 105
-2.0865 3.28901 0.910161 0 0 204
-2.08774 3.30452 0.911971 0 0 204
-2.68837 1.85121 0.739803 112 255 134
-2.27262 0.304703 0.630171 0 208 255
-2.56649 3.28237 -0.489569 200 0 0
-2.35314 0.0163822 0.69908 102 255 144
-2.55669 3.29949 -0.48904 241 7 0
-2.53806 3.28603 -0.472081 222 0 0
-1.82361 1.98961 0.554023 255 148 0
-1.89237 -0.57894 -2.58992 234 255 12
-1.69607 0.855078 0.0249778 255 155 0
-1.76468 1.48619 -0.0951573 192 255 54
-2.31324 -0.187325 1.02593 41 255 205
-1.84527 -0.337833 -2.1399 205 255 41
-1.68452 0.874933 0.0231301 255 44 0
-2.14217 -0.765142 0.201871 228 255 18
-2.30264 1.7251 -0.373213 255 29 0
-1.78174 1.23647 -0.165763 255 192 0
-1.90825 -1.06004 0.0579791 254 237 0
-2.41485 -0.318986 0.713636 124 255 121
-2.3181 0.0369835 0.710375 115 255 131
-2.59144 0.999562 0.343986 255 218 0
-2.39716 -0.330714 0.730495 134 255 112
-1.83354 -0.370262 -2.10673 255 233 0
-1.78734 -0.683484 0.561589 255 166 0
-2.34706 -0.31676 1.02339 124 255 121
-2.11156 1.12097 0.901635 0 124 255
-2.31246 0.975147 0.145774 44 255 202
-2.31231 0.00166432 -0.349118 255 192 0
-2.40704 -0.276679 0.705834 105 255 141
-2.41873 -0.201792 0.657135 89 255 157
-1.71648 -0.32636 0.339277 255 77 0
-2.23576 0.485134 0.626015 28 255 218
-1.94813 -0.283887 -1.95804 208 255 37
-1.77938 -0.528612 -2.56991 192 255 54
-1.80762 -0.220698 -1.56325 250 240 0
-2.24274 0.494284 0.687827 0 212 255
-1.83332 -0.342499 -2.13917 208 255 37
-1.8427 -0.336061 -2.15565 215 255 31
-2.38741 -0.320122 0.743802 137 255 108
-1.85128 1.13693 -0.224543 234 255 12
-2.26234 0.493889 0.657457 0 220 254
-1.89069 -0.426571 -2.53465 173 255 73
-1.91695 -0.366342 -2.06179 218 255 28
-2.24403 -0.0340032 -0.377645 255 166 0
-1.80556 2.17335 0.583843 234 255 12
-1.8076 2.17994 0.569735 205 255 41
-1.89093 1.56251 -0.306251 255 118 0
-2.24966 -1.29062 0.50429 0 40 255
-2.32338 -0.43081 1.83321 144 255 102
-2.258 0.51685 0.644486 18 252 228
-1.9916 -0.20017 -0.514683 163 255 83
-2.29608 -0.472299 0.495801 0 220 254
-1.89461 -0.654832 0.152882 255 85 0
-1.8303 -0.361877 -2.09581 170 255 76
-2.10714 -0.736425 0.379883 131 255 115
-2.25053 -0.0339294 -0.351142 255 174 0
-1.98158 3.15666 0.968977 0 180 255
-1.7855 -0.544905 -2.58166 255 189 0
-2.31767 3.21786 -0.428481 255 118 0
-2.30464 3.21158 -0.422314 255 77 0
-2.2139 -1.33312 0.507436 0 92 255
-1.83057 -0.344393 -2.19974 195 255 50
-1.67547 0.149116 -0.204727 227 0 0
-2.24988 -0.903291 0.323498 204 0 0
-1.85151 0.478058 0.819194 218 255 28
-2.29503 1.15904 0.832783 37 255 208
-1.78757 -0.508159 0.145325 241 252 5
-2.14598 -0.754596 0.222059 234 255 12
-2.23723 -1.32577 0.487875 0 48 255
-1.75593 0.213035 -0.185814 199 255 47
-1.8615 0.538835 0.846046 221 255 24
-2.36882 -0.450134 1.85541 183 255 63
-2.22671 0.527095 0.690559 0 216 255
-2.1119 -0.713477 0.378687 92 255 154
-2.32437 0.866801 0.42502 231 255 15
-2.25337 4.20802 0.985106 0 0 245
-2.3108 2.02318 1.08009 0 88 255
-1.91075 2.76285 -0.292774 255 226 0
-2.34301 -0.441212 1.82481 157 255 89
-2.03711 -0.143152 -1.08991 183 255 63
-1.90892 1.72434 -0.381721 255 226 0
-2.20871 0.80278 -0.0228493 255 122 0
-1.87144 -0.498567 -2.49296 170 255 76
-2.3196 3.24636 -0.421187 218 0 0
-2.33488 3.24273 -0.422371 255 40 0
-1.95284 -0.281539 -1.97907 218 255 28
-2.28316 1.68436 1.00082 0 120 255
-2.53354 2.12854 -0.370143 255 107 0
-1.87633 -0.435981 -2.50794 166 255 79
-1.50381 0.12438 0.0992859 115 255 131
-1.68702 0.901629 0.047305 255 226 0
-1.81047 2.04548 -0.248634 186 255 60
-2.05681 3.15454 -0.0468969 255 81 0
-1.75153 0.199506 -0.206834 255 122 0
-1.8618 0.592128 0.843462 212 255 34
-1.86204 0.491204 0.845872 205 255 41
-1.8628 0.515113 0.846459 212 255 34
-2.52676 2.14759 -0.370438 255 77 0
-1.79013 -0.347535 -2.11104 255 140 0
-1.85287 0.465379 0.806138 228 255 18
-2.28564 1.706 1.00824 0 76 255
-2.03271 -0.567944 -0.0687316 255 85 0
-1.8037 1.11658 -0.183441 218 255 28
-2.01283 -0.273824 -1.89875 205 255 41
-2.36523 -0.348191 1.24769 173 255 73
-1.8715 -0.508357 -2.4735 163 255 83
-2.06221 2.71854 -0.435716 255 155 0
-2.4691 3.55239 1.12698 0 88 255
-1.82957 -0.630068 0.570855 255 170 0
-1.93724 2.73331 -0.292351 255 200 0
-2.32687 0.844262 0.402219 224 255 21
-2.10828 -0.693201 0.406064 157 255 89
-1.78264 1.13687 -0.18747 221 255 24
-1.86855 -0.498085 -2.45387 166 255 79
-2.20283 1.8564 -0.417783 255 66 0
-2.14441 3.21548 1.08946 255 140 0
-2.33052 0.86595 0.403012 224 255 21
-1.60493 -1.0095 0.166309 255 152 0
-2.58469 1.71619 -0.188902 255 140 0
-2.5701 1.71026 -0.187985 255 233 0
-2.2069 2.62752 -0.463222 255 174 0
-1.7405 -0.348328 0.42702 255 122 0
-2.24061 0.802115 0.0135088 255 103 0
-1.86737 0.561664 0.849833 195 255 50
-1.88702 -0.460556 -2.10414 118 255 128
-2.26611 1.67743 1.00016 0 120 255
-2.31891 4.35464 -0.618069 255 163 0
-2.26229 2.51272 1.00841 255 111 0
-2.43338 3.53933 1.12349 0 56 255
-1.87555 -0.410381 -0.37588 234 255 12
-2.39193 -0.35001 1.13565 186 255 60
-2.3703 0.248278 0.137656 128 255 118
-2.26467 1.057 0.372229 0 156 255
-2.31549 0.202886 0.664109 147 255 99
-2.26098 1.73945 1.01038 0 80 255
-1.85168 0.501135 0.824993 202 255 44
-1.55688 0.27493 -0.103868 231 255 15
-1.93397 -0.931209 0.0976716 255 29 0
-1.86512 -0.454983 -2.46359 166 255 79
-2.01562 3.08005 0.00613864 255 96 0
-2.2162 2.68674 -0.47961 191 0 0
-2.21268 2.67297 -0.472722 255 40 0
-2.27332 1.72257 1.00563 0 68 255
-1.8566 0.52576 0.828592 218 255 28
-2.3245 0.877833 0.410841 218 255 28
-2.03346 4.86472 -0.364094 195 255 50
-1.66891 -0.146636 -0.054174 255 92 0
-2.22412 1.68378 0.984183 0 76 255
-1.59938 -0.115138 0.286475 128 255 118
-1.74738 -0.368719 0.44533 255 137 0
-1.78733 1.9512 0.655522 218 255 28
-1.80405 0.75356 -0.0644711 255 137 0
-2.67983 1.77945 -0.0100096 179 255 66
-2.58937 2.53487 0.825803 173 255 73
-2.59234 2.52376 0.814969 163 255 83
-2.52438 2.43279 0.742058 202 255 44
-2.31772 3.07368 -0.44831 236 3 0
-1.8278 -0.34001 -2.36968 199 255 47
-2.4172 -0.331183 0.676367 44 255 202
-2.39711 -0.126096 0.805852 0 180 255
-2.48818 2.02059 -0.106151 221 255 24
-2.30869 0.885039 0.316681 0 152 255
-2.37077 -0.337424 1.26114 118 255 128
-2.14012 -0.151054 1.06096 73 255 173
-2.32219 0.181699 0.627541 0 180 255
-2.22333 0.813731 -0.00478586 255 107 0
-2.25031 1.75761 1.01043 0 104 255
-1.7993 -0.350125 -0.123933 228 255 18
-2.27023 4.29506 -0.543398 255 207 0
-2.12432 -0.680811 0.435543 99 255 147
-2.25193 2.49936 1.02824 255 148 0
-1.86209 0.48788 0.814149 212 255 34
-1.80093 1.10505 -0.164994 255 174 0
-1.77022 1.06065 -0.147236 255 63 0
-2.25367 1.69462 0.998472 0 72 255
-2.39673 -0.338417 1.15896 183 255 63
-1.86086 -0.517714 -2.44992 166 255 79
-1.49685 0.656283 0.309553 131 255 115
-2.31601 2.78816 -0.426242 236 3 0
-2.36299 0.269983 0.139534 166 255 79
-2.21917 1.66407 0.982913 0 128 255
-1.91892 2.47656 0.59099 255 107 0
-1.99059 -0.355346 0.577807 255 137 0
-1.58575 2.54425 -0.0339729 37 255 208
-2.5341 2.3154 0.836309 173 255 73
-2.22473 1.68548 0.985306 0 72 255
-2.27041 1.70025 1.00176 0 84 255
-1.6501 0.903328 0.13958 255 170 0
-1.88534 1.35885 -0.289372 215 255 31
-2.40579 -0.340671 0.698804 47 255 199
-1.80442 -0.334172 -0.111737 255 59 0
-1.77681 1.05242 -0.166553 255 66 0
-1.84888 -0.395699 -2.49622 183 255 63
-2.01835 3.02796 -0.281733 255 166 0
-1.6767 0.803867 0.0557405 255 70 0
-1.82549 1.13543 -0.217967 255 177 0
-1.86053 0.765576 -0.0773673 255 192 0
-1.71121 1.22386 0.453264 228 255 18
-2.28091 0.130743 -0.0720939 154 255 92
-2.41373 -0.704685 0.05849 255 170 0
-2.35633 0.292132 0.142788 221 255 24
-1.88743 1.96595 -0.347222 255 215 0
-2.32237 -0.466465 -0.0432179 234 255 12
-2.04925 3.00815 -0.0334498 255 81 0
-2.30436 1.2979 0.899298 0 140 255
-2.22307 1.94676 -0.387968 255 33 0
-2.21625 1.94346 -0.401873 255 52 0
-2.64415 1.50637 0.172852 60 255 186
-2.4374 2.9425 -0.276278 255 33 0
-2.20443 1.66294 0.975013 0 152 255
-1.81508 -0.352768 -2.10228 234 255 12
-1.90287 1.99325 -0.347227 255 211 0
-2.03232 2.66606 0.113679 255 170 0
-2.29517 1.27836 0.888417 0 192 255
-2.27902 1.27943 0.86948 0 188 255
-2.40372 -0.388711 1.18873 186 255 60
-2.14638 -0.181665 1.11567 102 255 144
-1.86806 -0.432309 0.878038 57 255 189
-2.24143 1.71034 1.00066 0 92 255
-2.36739 -0.243068 -0.135294 255 211 0
-2.36294 0.270078 0.139334 166 255 79
-2.35643 0.281159 0.124002 137 255 108
-1.78492 -0.754361 0.335999 255 159 0
-2.4534 4.15159 -0.632585 255 59 0
-1.96456 -0.575452 0.815645 73 255 173
-2.28042 0.152892 -0.0647303 160 255 86
-2.33875 -0.318461 1.20163 199 255 47
-1.85336 1.52038 -0.287146 255 170 0
-1.82914 -0.385323 -0.118509 255 118 0
-1.8509 -0.155345 -1.13612 176 255 70
-2.29719 0.139698 -0.0595526 170 255 76
-2.38207 -0.256007 0.532278 255 100 0
-2.34366 -0.329293 1.8056 66 255 179
-2.23837 1.68832 0.996228 0 92 255
-2.33944 -0.483483 0.509147 195 255 50
-2.4904 2.03446 -0.0898446 228 255 18
-1.81799 1.1581 -0.218275 255 174 0
-2.33099 -0.268427 -0.13207 255 226 0
-2.1583 -0.542045 -0.0729049 255 203 0
-1.63377 -1.25272 0.109094 255 192 0
-1.94699 2.62235 0.085191 255 181 0
-2.29462 1.3151 0.915445 0 144 255
-2.52791 1.07387 0.295919 250 240 0
-2.25636 0.132343 -0.0930892 157 255 89
-2.34534 -0.266651 -0.0879484 141 255 105
-2.55464 3.28511 -0.479378 245 11 0
-1.68264 0.164587 -0.193842 227 0 0
-2.28211 0.164414 -0.085256 176 255 70
-2.04957 3.13418 -0.0471757 255 181 0
-2.26533 0.154003 -0.0996368 186 255 60
-2.34712 -0.02094 0.282057 86 255 160
-2.57658 1.57517 -0.120317 255 174 0
-2.13709 0.0392452 -0.6026 255 203 0
-1.86241 -0.414762 -2.46449 170 255 76
-2.20732 1.68249 0.980073 0 120 255
-1.78674 -0.446764 -2.27633 212 255 34
-2.3817 -0.215138 -0.0986138 255 196 0
-2.2116 1.64528 0.970967 0 180 255
-2.22204 4.53374 -0.398029 255 177 0
-2.34616 -0.396665 1.29085 173 255 73
-2.3168 -0.377168 -0.227645 255 196 0
-1.8052 -0.327643 -2.06347 192 255 54
-1.83528 3.21144 -0.021476 255 33 0
-1.95742 2.60708 0.101585 255 200 0
-2.3579 -0.237826 -0.106331 255 189 0
-1.57222 -0.7595 0.484962 0 88 255
-1.84921 -0.292863 -0.293101 255 181 0
-2.48661 2.33349 0.902688 28 255 218
-1.79911 1.16404 -0.200344 228 255 18
-1.8161 1.12039 -0.200797 228 255 18
-1.85052 -0.155334 -1.13608 176 255 70
-1.64705 1.21483 0.392003 254 237 0
-1.77064 3.05922 -0.218998 118 255 128
-2.30807 -0.434823 -0.208532 134 255 112
-2.4497 1.31225 0.664269 34 255 212
-2.3702 1.56863 0.675993 247 244 0
-2.3629 -0.231491 0.544286 255 103 0
-2.3741 1.08167 -0.230996 255 181 0
-2.32341 4.78659 1.31764 0 0 236
-2.31686 4.77414 1.32503 0 8 255
-2.32941 -0.170117 0.361253 186 255 60
-2.27515 0.142323 -0.0872484 150 255 95
-1.92405 0.729894 -0.00768063 255 233 0
-2.44788 4.17159 -0.631734 255 59 0
-2.35171 -0.256223 -0.136324 255 233 0
-2.42994 1.28174 -0.303573 255 22 0
-1.76298 -0.1941 -0.144791 159 0 0
-2.36157 -0.000127372 0.250993 157 255 89
-1.75947 0.688529 -0.0234412 183 255 63
-2.59757 3.69091 1.07689 47 255 199
-2.39459 -0.206504 -0.0814063 254 237 0
-2.31289 -0.257333 -0.130052 255 233 0
-2.35827 -0.0106035 0.269587 89 255 157
-2.38516 -0.219288 -0.0677473 224 255 21
-1.95682 2.64254 -0.246433 224 255 21
-1.73335 0.15283 -0.195858 227 0 0
-2.29828 0.173917 -0.0746237 189 255 57
-1.78883 1.17077 -0.181486 254 237 0
-2.06301 3.12766 -0.0594441 255 103 0
-2.19141 1.6795 0.981022 0 164 255
-1.71829 0.185767 -0.187059 255 118 0
-2.3759 1.74134 -0.198374 255 200 0
-2.34213 -0.223983 -0.144289 244 248 2
-1.97116 2.35219 -0.390693 255 107 0
-2.36513 -0.328357 1.33198 189 255 57
-1.65194 0.160036 -0.181083 241 252 5
-2.15386 -0.719811 0.354737 21 255 225
-1.73426 -1.25161 0.0684123 250 15 0
-2.33455 -0.165083 0.256408 189 255 57
-2.28834 0.149971 0.658149 12 244 234
-2.36587 -0.253314 -0.0557363 189 255 57
-2.3537 9.34896e-05 0.286071 108 255 137
-2.30674 -0.474523 -0.0154991 231 255 15
-2.30674 -0.474523 -0.0154991 231 255 15
-2.29677 0.218247 -0.0495251 208 255 37
-2.43319 4.15111 -0.623792 255 55 0
-2.28095 0.164133 -0.0912319 192 255 54
-2.35963 -0.275032 -0.0247209 244 248 2
-2.51989 3.02177 -0.282381 179 255 66
-2.35752 -0.120586 -0.0706847 255 189 0
-2.351 -0.439049 -0.0242423 12 244 234
-2.30797 -0.162913 -0.217725 255 144 0
-1.74893 0.67717 -0.0442506 192 255 54
-2.30104 4.37438 -0.64124 255 218 0
-2.31501 4.38195 -0.642281 255 118 0
-2.32385 -0.191608 0.358025 183 255 63
-2.42783 1.16134 0.286886 57 255 189
-1.9918 2.33922 -0.401516 255 111 0
-2.02947 -0.79382 0.673549 247 244 0
-2.3729 -0.393523 1.07291 183 255 63
-1.85102 -0.310843 0.681365 255 129 0
-2.15951 3.50985 1.05983 28 255 218
-2.48119 2.35848 0.900217 21 255 225
-2.05508 3.16782 -0.035026 255 115 0
-1.78226 1.15535 -0.164209 173 255 73
-1.70987 1.30356 0.0280713 160 255 86
-1.81044 1.1429 -0.200155 247 244 0
-2.36611 -0.252996 -0.021308 173 255 73
-1.76704 0.728822 -0.0330658 186 255 60
-1.57161 -0.800516 0.477186 0 64 255
-2.37046 -0.414943 1.07515 124 255 121
-2.28386 0.128448 0.650246 0 220 254
-2.2646 0.83815 0.0488654 134 255 112
-2.49669 2.97144 -0.265581 154 255 92
-2.57331 1.95017 0.0340058 173 255 73
-2.30047 2.12799 -0.363561 154 255 92
-2.1334 -0.716791 0.384745 57 255 189
-1.90525 -0.374724 -0.4255 250 240 0
-2.1059 2.56785 1.01902 255 59 0
-1.84472 2.56316 0.653479 137 255 108
-2.31423 -0.454395 -0.0192186 241 252 5
-2.30966 -0.435 -0.172178 176 255 70
-2.36116 -0.144137 -0.069171 255 189 0
-2.32766 -0.38497 -0.233375 255 203 0
-1.8445 2.37971 0.702689 15 248 231
-1.85184 2.3767 0.688865 0 76 255
-2.50138 2.99365 -0.268955 160 255 86
-1.51374 0.207641 0.227479 141 255 105
-2.52735 2.51729 -0.0898774 47 255 199
-2.14997 1.38332 0.907938 0 104 255
-1.65618 0.200458 -0.186976 255 40 0
-2.35539 1.73469 -0.145808 215 255 31
-2.25251 0.863302 0.0781338 208 255 37
-1.7706 -0.303899 -2.08117 163 255 83
-2.11171 -0.740581 0.373571 144 255 102
-1.9231 -0.285657 -0.986731 202 255 44
-1.641 0.957073 0.0905234 189 255 57
-1.553 0.813729 0.261205 255 218 0
-2.37892 -0.24132 -0.0672886 195 255 50
-1.90282 -0.401661 0.405722 255 74 0
-2.64078 1.54358 0.349346 205 255 41
-2.34806 -0.108185 -0.0706017 221 255 24
-1.89369 -0.754536 0.620259 255 155 0
-2.51146 2.97838 -0.278544 170 255 76
-2.61415 1.45781 0.445796 137 255 108
-1.44482 -1.18903 0.327999 70 255 176
-1.70595 -1.26335 0.0673798 255 177 0
-2.36779 0.285026 0.436701 50 255 195
-2.52231 3.04459 -0.284772 192 255 54
-2.12554 -0.707547 0.393273 76 255 170
-2.35344 -0.448478 1.25478 118 255 128
-1.78035 -0.4393 -2.26445 255 122 0
-1.7125 0.283629 -0.159601 227 0 0
-2.25406 2.52116 -0.23179 255 155 0
-2.26744 2.51322 -0.228255 255 118 0
-2.35747 -0.120586 -0.0707027 255 189 0
-1.81538 -0.755964 0.21172 255 189 0
-2.36831 -0.242475 -0.00364037 118 255 128
-1.72081 0.827569 -0.0205854 255 185 0
-2.12442 -0.744216 0.337957 205 255 41
-2.36245 -0.317802 1.31003 189 255 57
-2.14406 4.65327 -0.290814 179 255 66
-1.69923 0.867947 0.00949339 255 59 0
-2.48701 1.49588 0.747687 86 255 160
-2.35709 3.39264 -0.466121 132 0 0
-1.7177 0.837704 -0.0035499 255 166 0
-2.35645 0.114421 0.293274 157 255 89
-2.38425 0.00670163 0.106988 70 255 176
-2.36526 -0.242299 -0.0384632 163 255 83
-2.49789 2.89157 -0.223028 195 255 50
-1.9233 -0.273403 -0.971191 202 255 44
-2.51607 3.00078 -0.280144 170 255 76
-2.12877 0.050838 -0.595838 255 226 0
-2.50062 2.99335 -0.268308 157 255 89
-1.83937 -0.317788 0.656125 255 148 0
-1.83281 1.94456 0.565387 131 255 115
-1.82849 1.94528 0.550034 255 122 0
-2.30734 -0.502356 -0.109931 108 255 137
-1.74554 1.19984 -0.0825067 255 200 0
-1.70997 0.858418 -0.00482359 255 189 0
-2.30991 -0.44715 -0.00417701 234 255 12
-2.2497 2.25314 -0.397539 254 18 0
-2.51072 3.1249 -0.25862 131 255 115
-2.12343 -0.752303 0.333331 221 255 24
-1.78714 1.2908 -0.235037 255 140 0
-2.02807 0.259676 -0.222235 255 155 0
-2.32565 1.74617 -0.335451 254 237 0
-2.51963 3.09543 -0.2879 228 255 18
-1.88655 -0.341814 0.661647 134 255 112
-2.34559 -0.096221 -0.101912 255 189 0
-1.46306 -1.21003 0.350287 176 255 70
-2.28668 0.682055 0.504186 15 248 231
-1.84756 -0.299505 0.701322 255 177 0
-1.54108 -1.40964 0.419802 0 80 255
-2.34591 3.37399 -0.462785 145 0 0
-2.35793 0.296292 0.406718 157 255 89
-2.28412 0.707191 0.291618 44 255 202
-2.35278 0.190592 0.150235 144 255 102
-1.63466 -0.160391 0.252248 255 222 0
-2.68832 1.98437 -0.273745 255 55 0
-2.36309 -0.264352 -0.00509068 112 255 134
-1.79284 2.10391 -0.278146 215 255 31
-1.53542 -1.39848 0.411856 0 92 255
-1.71481 0.847798 0.0122009 255 140 0
-1.83854 -0.25497 -1.90035 173 255 73
-2.34159 -0.375902 0.536137 179 255 66
-1.90112 0.239162 -0.215279 254 237 0
-2.15753 0.630042 0.67528 8 240 237
-2.26365 0.872375 0.0703984 215 255 31
-1.98754 -0.18927 -1.27796 160 255 86
-1.88558 -0.461737 0.756741 37 255 208
-1.71152 0.825958 0.010667 254 18 0
-2.49205 3.3007 -0.414484 255 233 0
-2.37104 0.263222 0.444484 86 255 160
-2.27441 2.51847 -0.244821 255 100 0
-2.64701 1.72865 0.396526 131 255 115
-1.68673 0.842085 0.0372454 255 96 0
-2.07839 1.87773 -0.465685 255 48 0
-2.02003 -0.805093 0.0907527 255 48 0
-1.64033 -0.17668 0.27474 255 196 0
-1.85085 -1.19402 0.0462664 236 3 0
-1.81267 -0.379068 -2.50474 250 240 0
-1.60889 1.01454 0.385605 202 255 44
-2.04429 2.26206 1.01253 247 244 0
-2.035 2.25459 1.02321 192 255 54
-1.58999 0.00516955 0.515026 255 152 0
-2.29929 -0.284627 1.4643 83 255 163
-2.28598 2.22271 -0.375107 154 255 92
-2.25787 -0.00589539 0.795488 0 188 255
-1.63794 2.9265 -0.123395 218 255 28
-2.31598 0.866707 0.569452 37 255 208
-2.3025 -0.180514 -0.188982 228 255 18
-2.29106 2.24453 -0.37042 173 255 73
-2.33879 -0.459331 -0.0604016 234 255 12
-1.74624 1.23192 -0.100922 247 244 0
-1.62344 1.02764 0.382055 195 255 50
-2.29163 2.24163 -0.401298 176 255 70
-2.29138 2.24115 -0.401029 176 255 70
-2.15386 -0.760789 0.341082 154 255 92
-2.56786 1.3473 0.4146 137 255 108
-2.33898 -0.21348 0.908243 0 196 255
-2.32535 -0.0847958 -0.10112 255 189 0
-2.35857 0.25014 0.367764 195 255 50
-1.82076 -0.773486 0.233364 255 185 0
-2.5537 1.60972 -0.183906 255 133 0
-1.51488 -1.32795 0.37595 0 88 255
-1.73981 -0.296492 -2.01927 157 255 89
-2.24569 0.415653 -0.0555049 215 255 31
-1.78534 -1.16824 0.041047 254 18 0
-2.50445 3.31949 -0.415415 255 163 0
-2.5382 3.72763 1.09359 54 255 192
-2.2015 4.43682 1.08437 0 116 255
-1.89757 1.34048 -0.288964 124 255 121
-2.65507 1.02318 0.371074 224 255 21
-2.32008 -0.461896 -0.0302509 244 248 2
-2.3783 2.74171 -0.440806 255 107 0
-2.34352 -0.190208 -0.030249 205 255 41
-2.30473 0.875208 0.284256 57 255 189
-1.90436 -0.438435 0.674346 255 215 0
-1.75326 1.88244 -0.255185 95 255 150
-2.34767 0.272127 0.358871 131 255 115
-2.29847 2.22898 -0.37923 186 255 60
-1.74784 1.88961 -0.272864 166 255 79
-2.13348 4.89452 1.12318 255 89 0
-2.13997 4.89438 1.10853 255 170 0
-2.29827 2.22847 -0.378756 189 255 57
-1.60341 -0.0166144 0.514586 255 192 0
-1.80596 -0.333348 -0.13303 255 77 0
-2.28815 2.22291 -0.375144 154 255 92
-2.30533 -0.439284 0.00693979 218 255 28
-2.31539 0.845399 0.566642 41 255 205
-2.28557 2.20006 -0.37572 154 255 92
-1.86071 -0.423692 -0.0786654 255 37 0
-1.61959 -0.153788 0.33002 228 255 18
-2.29649 2.26228 -0.396406 195 255 50
-1.63093 -0.161968 0.316152 189 255 57
-1.6281 0.993465 0.365094 205 255 41
-2.12862 -0.299585 -1.11372 166 255 79
-1.60873 1.03716 0.385628 199 255 47
-1.78519 -0.473577 -2.33446 141 255 105
-1.76685 1.15208 -0.0700153 254 237 0
-1.722 -0.256787 0.516987 255 229 0
-2.31929 -0.437922 0.0861905 15 248 231
-1.9279 -0.473872 -2.0368 255 22 0
-2.3238 0.698922 0.535346 0 196 255
-2.30466 -0.173187 -0.192025 255 233 0
-2.3473 -0.995575 0.294167 0 80 255
-2.35485 -0.194741 0.974801 44 255 202
-1.607 1.04716 0.355297 255 166 0
-2.5254 3.16642 -0.288138 199 255 47
-2.29504 -0.461638 0.00590571 241 252 5
-2.55954 1.32694 0.419206 208 255 37
-1.8084 -0.523849 0.268669 144 255 102
-2.36204 -0.338356 1.33017 247 244 0
-2.29329 -0.459246 1.703 134 255 112
-1.98115 1.53338 -0.28504 255 192 0
-2.34218 0.170822 0.57723 21 255 225
-1.67297 -0.86113 0.246866 255 200 0
-1.88507 -0.463081 -0.0837654 250 240 0
-2.29398 2.20762 -0.383472 173 255 73
-2.29341 2.20722 -0.383361 173 255 73
-2.37817 -0.16432 -0.117611 147 255 99
-2.30843 -0.450225 0.104516 0 204 255
-2.68602 1.05051 0.393622 189 255 57
-2.24743 -0.563151 0.339093 24 255 221
-2.37064 -0.148425 -0.094305 179 255 66
-2.33172 -0.455006 1.19328 0 200 255
-2.60266 2.57155 0.781386 221 255 24
-2.33944 -0.224111 0.890601 8 240 237
-2.2972 -0.269488 1.44521 79 255 166
-2.55196 2.33616 -0.239999 255 52 0
-2.34541 -0.387618 0.953716 73 255 173
-1.59501 0.706415 0.201403 218 255 28
-2.29868 -0.341471 1.90167 95 255 150
-2.29868 -0.341471 1.90167 95 255 150
-2.68559 1.77723 0.616482 105 255 141
-2.37479 -0.388405 0.886478 31 255 215
-1.80847 -0.361087 -2.21262 212 255 34
-2.29864 2.27168 -0.396486 195 255 50
-2.35436 -0.1605 -0.125918 221 255 24
-2.37021 -0.181081 -0.120682 250 240 0
-2.46251 1.58473 -0.244202 204 0 0
-2.46819 1.58045 -0.229804 255 48 0
-1.96827 4.86423 -0.500226 144 255 102
-2.34661 0.282914 0.338662 137 255 108
-2.2983 2.24906 -0.410174 176 255 70
-1.82262 -0.342544 -2.3498 186 255 60
-1.6617 -1.42432 0.167527 205 255 41
-1.99628 -0.175338 -1.25357 170 255 76
-2.26225 4.13237 0.935602 0 28 255
-1.80968 -0.547382 0.271254 160 255 86
-1.63885 -0.183739 0.317293 255 133 0
-2.24119 0.354041 -0.0518407 163 255 83
-1.81003 -0.489334 0.255826 144 255 102
-2.30346 0.757053 0.229077 141 255 105
-2.31239 2.32544 -0.443035 128 255 118
-1.89533 4.91412 1.37882 0 136 255
-1.90482 4.92525 1.38547 0 116 255
-2.12305 1.00392 0.6088 224 255 21
-1.63333 1.03997 0.370613 176 255 70
-2.3005 2.29458 -0.394782 195 255 50
-2.37693 1.84126 -0.328609 255 29 0
-1.84558 -0.334355 -2.30368 157 255 89
-1.73014 1.34212 -0.120932 173 255 73
-2.30168 -0.490089 0.556973 0 168 255
-2.30965 -0.0529201 0.823136 95 255 150
-1.80496 -0.500254 0.227533 166 255 79
-2.32827 1.53801 -0.269028 202 255 44
-2.30267 2.31735 -0.393099 195 255 50
-2.24737 0.385556 -0.0466355 183 255 63
-2.34599 0.888376 0.443455 57 255 189
-1.64816 -1.29945 0.0946367 255 29 0
-2.29949 2.35366 -0.417495 199 255 47
-2.67081 1.77066 0.584584 179 255 66
-2.12794 0.0643854 -0.579569 254 237 0
-2.13992 2.1341 -0.45978 255 29 0
-2.12438 2.13672 -0.456585 218 0 0
-2.02384 -0.153395 -1.2545 170 255 76
-1.8189 -0.361753 -2.34412 144 255 102
-1.65991 -1.4197 0.14218 212 255 34
-1.60861 0.962495 0.187081 112 255 134
-1.82708 -0.340641 -2.29982 192 255 54
-2.29382 -0.46932 -0.00835479 255 229 0
-2.24745 -0.563166 0.339106 24 255 221
-2.29062 0.763883 0.361821 18 252 228
-1.80673 2.70014 0.744476 124 255 121
-2.54284 3.74153 1.07375 24 255 221
-2.28889 1.99907 -0.371133 236 3 0
-2.28453 4.1299 0.936265 0 28 255
-2.55649 1.31623 0.401275 208 255 37
-2.30179 2.34092 -0.434319 131 255 115
-1.87312 1.7522 -0.290242 137 255 108
-2.31834 0.516476 0.14008 192 255 54
-2.34526 -0.387888 0.955753 73 255 173
-2.13055 0.993286 0.601301 189 255 57
-2.13055 0.993286 0.601301 189 255 57
-2.69597 1.74136 -0.0233119 231 255 15
-2.03499 3.52966 -0.215006 255 100 0
-1.99941 -0.191683 -0.468423 108 255 137
-2.17553 1.00016 0.611861 176 255 70
-2.32263 1.55 -0.300902 202 255 44
-2.29436 -0.260508 -0.155439 255 222 0
-1.74325 -1.35732 0.0447092 255 177 0
-1.82935 2.67038 0.646755 166 255 79
-1.83125 2.66034 0.659192 221 255 24
-2.42518 -0.463841 2.28852 241 252 5
-2.29073 2.28584 -0.423993 131 255 115
-1.62551 0.894229 0.15601 224 255 21
-1.65858 0.901854 0.0604722 255 70 0
-2.68819 1.73061 -0.0406135 255 215 0
-2.29898 0.710383 0.281964 92 255 154
-2.69624 1.72344 0.0123378 118 255 128
-2.29796 -0.0541366 -0.0959891 255 229 0
-2.01323 -0.151012 -1.37178 170 255 76
-1.67706 1.68151 0.273779 176 255 70
-1.67541 1.67222 0.260728 115 255 131
-2.23876 2.9064 -0.431233 254 18 0
-2.29112 2.26224 -0.424049 131 255 115
-2.33548 -0.378094 0.93671 134 255 112
-2.09407 -1.44518 0.441349 0 100 255
-2.33334 -0.490253 0.949951 70 255 176
-2.31475 1.71452 -0.342875 255 111 0
-2.44167 2.50015 0.601586 215 255 31
-2.23324 -0.480687 1.05636 18 252 228
-2.29406 -0.45397 0.0212257 179 255 66
-2.01618 1.47606 -0.337098 255 181 0
-2.66392 1.02501 0.343704 170 255 76
-2.28383 -0.248734 1.45489 108 255 137
-2.35504 -0.322897 1.03422 57 255 189
-2.55428 2.41966 -0.245208 255 55 0
-2.29237 2.30882 -0.422497 131 255 115
-2.56288 3.13168 0.881879 218 255 28
-2.65042 1.01462 0.35572 179 255 66
-2.3547 -0.144083 -0.109434 221 255 24
-1.89 -0.811427 -0.0865276 24 255 221
-1.85009 0.00206482 -0.231583 255 118 0
-1.67835 2.96285 -0.137827 218 255 28
-2.29435 0.768386 0.244962 157 255 89
-2.41276 3.15729 -0.392758 221 255 24
-2.42672 3.15591 -0.38482 255 222 0
-2.32162 -0.642481 3.03947 137 255 108
-2.18377 4.11999 0.975383 0 4 255
-2.60238 2.54626 0.794281 199 255 47
-2.2954 2.3314 -0.420318 131 255 115
-2.33641 -0.0198604 -0.0641145 241 252 5
-2.31072 0.534877 0.122359 73 255 173
-1.64342 0.358988 -0.104545 255 215 0
-2.53782 2.43407 -0.25178 255 44 0
-2.37161 -0.301628 0.869798 0 184 255
-1.83986 -0.253948 -1.89546 192 255 54
-2.29722 -0.492338 0.870102 0 164 255
-1.6236 0.916808 0.153279 199 255 47
-2.07888 0.786876 0.76815 0 116 255
-2.35837 0.027483 0.68516 31 255 215
-2.54322 2.40208 -0.24555 127 0 0
-2.01547 -0.150661 -1.05553 199 255 47
-1.68648 2.99212 -0.128805 124 255 121
-2.33448 0.525804 0.172097 118 255 128
-2.23925 0.448445 -0.0432902 195 255 50
-2.69582 1.75071 -0.0396274 212 255 34
-2.10387 -1.46689 0.442476 0 160 255
-2.66095 1.81606 0.57854 115 255 131
-2.66095 1.81606 0.57854 115 255 131
-2.31721 2.37263 -0.442782 131 255 115
-2.2397 2.00178 1.06979 0 32 255
-2.23649 2.01676 1.06472 0 188 255
-2.26708 -0.477368 0.0119555 255 207 0
-2.19628 -0.498211 1.07323 0 224 250
-1.87264 -0.448885 -2.63921 255 233 0
-1.60217 2.91954 -0.10102 163 255 83
-1.86278 0.865322 -0.0261404 255 89 0
-1.77978 2.18908 -0.195685 147 255 99
-1.77444 2.17513 -0.189568 141 255 105
-1.85006 -0.464417 -2.64303 255 200 0
-1.79037 2.20588 0.626814 255 233 0
-1.80151 2.20737 0.615228 254 237 0
-2.54529 2.37002 -0.240678 191 0 0
-2.29883 0.121176 0.649374 163 255 83
-2.30129 1.83536 0.902276 124 255 121
-2.29846 -0.281795 1.46247 83 255 163
-2.51244 2.90931 -0.16809 141 255 105
-1.84783 -0.488626 -1.9119 192 255 54
-1.68278 -0.26611 0.379717 255 140 0
-1.59336 -0.136925 0.347997 218 255 28
-2.44861 1.89899 -0.269158 255 118 0
-1.68908 3.01908 -0.126279 160 255 86
-1.83447 2.13715 0.011801 0 140 255
-2.31673 2.37116 -0.441243 131 255 115
-2.28211 0.794142 0.307485 0 224 250
-1.70774 3.00234 -0.148378 157 255 89
-2.13712 4.74471 1.27244 0 80 255
-2.33255 0.482213 0.241879 54 255 192
-2.20176 1.38095 -0.373034 204 0 0
-2.54263 2.42279 -0.233194 168 0 0
-2.33197 -0.140171 -0.1198 254 237 0
-2.30696 0.133119 0.635755 166 255 79
-1.78803 2.19009 -0.168888 134 255 112
-1.74962 -0.37338 -0.048709 255 159 0
-1.6742 1.23787 0.121012 176 255 70
-1.54924 0.195805 -0.096306 234 255 12
-1.73048 3.12006 -0.0462909 255 144 0
-2.11155 2.7726 0.0840241 255 174 0
-2.11145 2.78686 0.0764241 255 140 0
-2.02574 -0.974425 0.152838 255 40 0
-1.86124 -0.159758 -0.268644 255 44 0
-1.90787 -0.265836 -0.957853 205 255 41
-2.25161 -0.466613 -0.40492 218 255 28
-2.50191 2.37763 0.860691 0 116 255
-1.80197 -0.524788 -2.27071 147 255 99
-2.31589 -0.298452 1.92909 34 255 212
-2.26336 -0.243828 1.46912 108 255 137
-2.13003 0.192767 0.858374 0 0 245
-1.98652 -0.249291 -1.02859 186 255 60
-1.79699 -0.35868 0.425499 255 148 0
-2.53698 2.41956 0.813819 228 255 18
-1.92993 -0.200839 -1.3567 160 255 86
-1.85232 -0.847559 0.61349 218 255 28
-1.82174 2.02578 -0.265316 247 244 0
-1.82637 1.80664 -0.243004 255 207 0
-2.33141 -0.00641176 -0.0873831 255 211 0
-2.25646 4.28914 -0.513916 144 255 102
-2.51568 2.35008 0.868391 141 255 105
-2.28796 -0.294603 -0.263009 212 255 34
-2.27928 -0.262522 -0.226325 255 185 0
-2.00005 -0.369934 0.189887 224 255 21
-2.01518 -0.168888 -0.467706 134 255 112
-2.66849 3.33357 -0.217771 255 26 0
-2.41259 2.95191 -0.287425 254 18 0
-1.93252 -0.568802 0.815254 128 255 118
-1.67254 3.43254 -0.20392 234 255 12
-2.27099 -0.274481 -0.244365 255 189 0
-2.52551 2.43857 -0.237032 255 59 0
-2.02602 4.8868 -0.465759 134 255 112
-1.69479 2.9831 -0.141338 166 255 79
-2.24355 1.75716 -0.405527 255 96 0
-2.15244 3.91916 1.0828 0 0 254
-2.08928 2.96598 -0.397756 99 255 147
-2.12977 0.019186 -0.376406 250 240 0
-2.16238 3.35704 -0.43609 255 129 0
-2.17086 3.34472 -0.442286 254 237 0
-1.86846 1.52823 -0.302095 255 170 0
-2.32281 -0.258487 0.979174 99 255 147
-1.78654 1.85205 -0.26235 237 255 8
-2.04404 -0.974263 0.157903 255 52 0
-2.6449 2.8987 0.148965 255 44 0
-1.81629 1.78449 0.295051 95 255 150
-1.79301 2.08168 -0.292664 255 192 0
-2.51068 2.41429 0.782553 231 255 15
-1.99114 -0.247239 -0.543574 99 255 147
-2.23174 -1.33053 0.117303 213 0 0
-1.79839 1.77694 0.269675 73 255 173
-2.62863 2.90628 0.132543 255 48 0
-1.70418 -0.287473 0.382825 255 148 0
-1.79772 1.69484 0.0636253 108 255 137
-2.10439 1.05219 0.592112 255 192 0
-2.14175 1.02426 0.610529 255 192 0
-2.68285 1.7994 0.61462 115 255 131
-2.68952 1.79764 0.619648 102 255 144
-2.68299 1.79919 0.614621 92 255 154
-2.68285 1.7994 0.61462 115 255 131
-2.68299 1.79919 0.614621 92 255 154
-2.63291 2.89008 0.134747 255 37 0
-2.51987 3.07611 -0.288426 221 255 24
-2.51943 3.08115 -0.303818 255 192 0
-1.96881 -0.272898 -1.03703 244 248 2
-1.83841 1.94893 0.870848 8 240 237
-1.99356 -0.250444 -0.538672 102 255 144
-1.77014 1.85726 -0.160484 195 255 50
-2.63558 2.87495 0.140033 255 33 0
-2.30067 3.61318 -0.556135 255 22 0
-2.29082 4.37746 -0.583656 255 126 0
-1.79401 -0.533746 -2.2504 166 255 79
-2.15382 3.89173 1.08283 0 0 255
-2.37625 2.39315 -0.352079 189 255 57
-1.81328 2.11687 -0.304622 255 107 0
-2.38172 4.28038 -0.622468 255 126 0
-2.39218 4.2756 -0.633895 255 126 0
-1.96916 -0.669187 0.0933438 189 255 57
-1.87477 4.92406 1.17648 255 181 0
-2.29521 4.3469 -0.587054 255 170 0
-1.8168 1.72329 0.0764738 115 255 131
-2.30212 1.82553 0.887993 163 255 83
-1.73359 -1.09762 0.107129 255 222 0
-2.57243 3.94992 0.902133 5 236 241
-1.5471 -1.12782 0.455865 0 140 255
-2.51609 2.40243 0.799954 234 255 12
